X,Y,Z,R,IR,HR,RR,SPO2,Activity,HR Mean,RR Mean,SPO2 Mean
1.01,0.34,-0.29,9961,11529,,,,4,,,
0.96,0.35,-0.16,9968,11511,,,,4,,,
0.96,0.35,-0.19,9911,11493,,,,4,,,
0.95,0.41,-0.22,9869,11482,,,,4,,,
1.01,0.46,-0.21,9971,11555,,,,4,,,
1.02,0.44,-0.09,9999,11599,,,,4,,,
1.02,0.43,-0.09,10063,11607,,,,4,,,
0.95,0.36,-0.13,10065,11587,,,,4,,,
0.9,0.35,-0.26,9953,11540,,,,4,,,
0.85,0.35,-0.35,9826,11423,,,,4,,,
0.89,0.41,-0.37,9932,11513,,,,4,,,
0.93,0.43,-0.36,9963,11556,,,,4,,,
0.95,0.39,-0.17,10070,11576,,,,4,,,
0.98,0.36,-0.06,9910,11447,,,,4,,,
0.98,0.39,-0.11,9914,11536,,,,4,,,
0.98,0.34,-0.25,9981,11545,,,,4,,,
0.99,0.34,-0.35,9987,11714,,,,4,,,
1.01,0.37,-0.35,10086,11587,,,,4,,,
1.01,0.4,-0.34,9978,11578,,,,4,,,
0.99,0.32,-0.34,9824,11471,,,,4,,,
0.95,0.34,-0.3,9955,11549,,,,4,,,
0.98,0.4,-0.21,9982,11562,,,,4,,,
0.95,0.4,-0.25,10117,11615,,,,4,,,
0.93,0.37,-0.31,10010,11555,,,,4,,,
0.91,0.32,-0.32,9892,11510,,,,4,,,
0.98,0.37,-0.25,9999,11560,,,,4,,,
1.04,0.39,-0.06,10017,11594,,,,4,,,
1.02,0.37,-0.17,10105,11553,,,,4,,,
0.96,0.34,-0.24,9978,11567,,,,4,,,
1,0.32,-0.21,10148,11711,,,,4,,,
0.93,0.34,-0.2,9986,11584,,,,4,,,
0.94,0.32,-0.31,10016,11515,,,,4,,,
0.95,0.34,-0.26,9868,11671,,,,4,,,
0.98,0.37,-0.26,10012,11456,,,,4,,,
0.94,0.37,-0.16,9904,11536,,,,4,,,
0.96,0.36,-0.14,9977,11560,,,,4,,,
0.98,0.37,-0.09,10095,11677,,,,4,,,
0.98,0.36,-0.16,10072,11551,,,,4,,,
0.96,0.34,-0.1,10013,11580,,,,4,,,
0.99,0.32,-0.15,9883,11503,,,,4,,,
0.99,0.34,-0.19,9951,11560,,,,4,,,
0.99,0.35,-0.16,10097,11656,,,,4,,,
0.99,0.37,-0.14,9974,11588,,,,4,,,
1,0.35,-0.15,9884,11483,,,,4,,,
1.02,0.39,-0.22,9934,11597,,,,4,,,
1,0.36,-0.25,10010,11566,,,,4,,,
1,0.39,-0.22,10099,11694,,,,4,,,
1.02,0.43,-0.14,10091,11561,,,,4,,,
1.02,0.44,-0.25,9999,11590,,,,4,,,
1.01,0.4,-0.24,9871,11482,,,,4,,,
0.99,0.39,-0.21,9949,11568,,,,4,,,
1.04,0.43,-0.16,10097,11610,,,,4,,,
1.05,0.47,-0.24,9981,11581,,,,4,,,
1.04,0.46,-0.24,9866,11503,,,,4,,,
0.99,0.37,-0.25,9979,11582,,,,4,,,
0.89,0.36,-0.26,9999,11572,,,,4,,,
0.9,0.39,-0.3,10101,11480,,,,4,,,
0.94,0.41,-0.3,9995,11554,,,,4,,,
0.93,0.37,-0.36,9894,11567,,,,4,,,
0.89,0.35,-0.39,9985,11548,,,,4,,,
0.93,0.37,-0.36,10099,11655,,,,4,,,
0.93,0.39,-0.24,10019,11560,,,,4,,,
0.96,0.41,-0.19,9841,11449,,,,4,,,
0.96,0.36,-0.13,9994,11545,,,,4,,,
0.9,0.34,-0.21,9978,11582,,,,4,,,
0.88,0.35,-0.21,10090,11625,,,,4,,,
0.86,0.35,-0.24,10025,11518,,,,4,,,
0.88,0.35,-0.25,9966,11524,,,,4,,,
0.93,0.36,-0.21,9858,11641,,,,4,,,
0.95,0.34,-0.29,9972,11530,,,,4,,,
0.98,0.35,-0.22,9959,11391,,,,4,,,
0.99,0.36,-0.1,9856,11466,,,,4,,,
1,0.35,-0.11,9947,11530,,,,4,,,
0.98,0.3,-0.14,9952,11552,,,,4,,,
0.99,0.3,-0.21,10042,11569,,,,4,,,
1,0.31,-0.17,9965,11519,,,,4,,,
1,0.31,-0.21,9815,11373,,,,4,,,
1,0.35,-0.15,9915,11493,,,,4,,,
0.98,0.35,-0.19,9951,11511,,,,4,,,
0.99,0.32,-0.14,10040,11606,,,,4,,,
1,0.35,-0.09,9934,11484,,,,4,,,
0.98,0.36,-0.16,9801,11400,,,,4,,,
1.01,0.34,-0.06,9964,11561,,,,4,,,
1.01,0.36,-0.15,10051,11509,,,,4,,,
1.04,0.47,-0.29,9952,11588,,,,4,,,
1.11,0.5,-0.19,9812,11594,,,,4,,,
1,0.45,-0.17,10017,11629,,,,4,,,
0.91,0.37,-0.19,9904,11496,,,,4,,,
0.94,0.44,-0.21,9967,11439,,,,4,,,
0.98,0.44,-0.32,9928,11568,,,,4,,,
0.98,0.45,-0.35,9991,11571,,,,4,,,
0.94,0.4,-0.32,9962,11563,,,,4,,,
0.94,0.37,-0.32,9985,11612,,,,4,,,
0.91,0.37,-0.24,10138,11703,,,,4,,,
0.88,0.35,-0.24,9999,11629,,,,4,,,
0.9,0.32,-0.26,10019,11598,,,,4,,,
0.93,0.32,-0.28,10126,11674,,,,4,,,
0.85,0.31,-0.26,10009,11605,,,,4,,,
0.9,0.32,-0.17,9952,11481,,,,4,,,
0.96,0.43,-0.14,9935,11578,,,,4,,,
1,0.45,-0.06,10005,11597,,,,4,,,
1,0.4,-0.04,10137,11624,,,,4,,,
0.94,0.36,-0.13,9854,11486,,,,4,,,
0.9,0.31,-0.13,9963,11602,,,,4,,,
0.91,0.31,-0.19,10024,11603,,,,4,,,
0.96,0.35,-0.14,10058,11734,,,,4,,,
0.98,0.35,-0.19,10089,11610,,,,4,,,
0.99,0.35,-0.16,10114,11651,,,,4,,,
1,0.35,-0.14,9889,11541,,,,4,,,
0.95,0.34,-0.17,9988,11598,,,,4,,,
0.98,0.32,-0.13,10012,11611,,,,4,,,
0.98,0.32,-0.09,10105,11622,,,,4,,,
0.96,0.35,-0.08,10154,11706,,,,4,,,
0.99,0.36,-0.04,10042,11622,,,,4,,,
0.99,0.36,-0.09,9972,11497,,,,4,,,
1.01,0.32,-0.16,9958,11611,,,,4,,,
0.99,0.35,-0.17,10204,11429,,,,4,,,
0.98,0.34,-0.19,9986,11568,,,,4,,,
0.99,0.36,-0.21,10000,11607,,,,4,,,
0.98,0.4,-0.21,10068,11684,,,,4,,,
1,0.4,-0.15,10057,11621,,,,4,,,
1.04,0.41,-0.05,9962,11599,,,,4,,,
1.05,0.4,-0.04,9873,11504,,,,4,,,
1.02,0.43,-0.09,9986,11610,,,,4,,,
1.01,0.41,-0.1,10018,11585,,,,4,,,
0.99,0.39,-0.17,10083,11678,,,,4,,,
1.01,0.4,-0.22,10025,11588,,,,4,,,
0.89,0.37,-0.24,9960,11578,,,,4,,,
0.88,0.37,-0.21,9999,11616,,,,4,,,
0.86,0.41,-0.22,10066,11564,,,,4,,,
0.85,0.37,-0.3,9864,11461,,,,4,,,
0.96,0.39,-0.32,9951,11557,,,,4,,,
0.99,0.43,-0.31,9789,11442,,,,4,,,
1.02,0.4,-0.2,9957,11556,,,,4,,,
0.99,0.36,-0.11,9984,11578,,,,4,,,
0.94,0.37,-0.17,10128,11679,,,,4,,,
0.94,0.39,-0.17,10002,11598,,,,4,,,
0.91,0.37,-0.24,9968,11504,,,,4,,,
0.91,0.39,-0.19,9851,11493,,,,4,,,
0.93,0.36,-0.21,9973,11543,,,,4,,,
0.91,0.36,-0.17,9957,11542,,,,4,,,
0.98,0.4,-0.19,10108,11622,,,,4,,,
0.96,0.43,-0.17,10007,11513,,,,4,,,
0.98,0.4,-0.05,9878,11507,,,,4,,,
0.94,0.32,-0.16,9979,11534,,,,4,,,
0.94,0.37,-0.16,9949,11573,,,,4,,,
0.98,0.44,-0.06,10064,11634,,,,4,,,
0.94,0.45,-0.13,9957,11541,,,,4,,,
0.96,0.43,-0.17,9961,11556,,,,4,,,
0.99,0.39,-0.09,10152,11683,,,,4,,,
1,0.37,-0.14,9986,11569,,,,4,,,
0.95,0.35,-0.21,9974,11578,,,,4,,,
0.99,0.41,-0.16,9870,11532,,,,4,,,
0.98,0.41,-0.16,10002,11577,,,,4,,,
0.94,0.44,-0.13,10120,11696,,,,4,,,
0.94,0.4,-0.17,9966,11557,,,,4,,,
0.96,0.43,-0.26,10006,11415,,,,4,,,
0.96,0.43,-0.3,9882,11671,,,,4,,,
0.98,0.43,-0.3,9995,11589,,,,4,,,
0.98,0.39,-0.28,10083,11638,,,,4,,,
0.99,0.44,-0.3,10000,11600,,,,4,,,
0.95,0.4,-0.3,9916,11479,,,,4,,,
0.96,0.43,-0.28,9926,11580,,,,4,,,
0.93,0.41,-0.31,9993,11532,,,,4,,,
0.95,0.41,-0.25,9847,11496,,,,4,,,
0.9,0.44,-0.26,9988,11589,,,,4,,,
0.91,0.47,-0.26,10161,11681,,,,4,,,
0.9,0.46,-0.26,10017,11604,,,,4,,,
0.91,0.44,-0.28,9987,11528,,,,4,,,
0.89,0.45,-0.29,9879,11521,,,,4,,,
0.9,0.41,-0.28,9973,11583,,,,4,,,
0.89,0.43,-0.31,9952,11593,,,,4,,,
0.89,0.44,-0.24,10138,11665,,,,4,,,
0.95,0.46,-0.28,9986,11485,,,,4,,,
0.96,0.46,-0.29,9952,11550,,,,4,,,
0.99,0.45,-0.24,9988,11531,,,,4,,,
0.98,0.45,-0.28,10106,11651,,,,4,,,
1.01,0.47,-0.22,9993,11543,,,,4,,,
1,0.49,-0.22,9988,11593,,,,4,,,
0.94,0.46,-0.24,9881,11552,,,,4,,,
0.9,0.44,-0.29,9951,11553,,,,4,,,
0.94,0.46,-0.31,10115,11640,,,,4,,,
0.99,0.44,-0.28,9971,11575,,,,4,,,
1,0.47,-0.19,9969,11430,,,,4,,,
0.93,0.37,-0.34,10116,11589,,,,4,,,
0.91,0.37,-0.32,10033,11675,,,,4,,,
0.94,0.41,-0.31,9949,11626,,,,4,,,
0.91,0.39,-0.28,10000,11615,,,,4,,,
0.93,0.34,-0.3,10035,11641,,,,4,,,
0.9,0.36,-0.25,9894,11493,,,,4,,,
0.94,0.39,-0.29,9944,11598,,,,4,,,
0.95,0.37,-0.29,9939,11604,,,,4,,,
0.96,0.39,-0.29,10083,11720,,,,4,,,
0.96,0.37,-0.26,10020,11641,,,,4,,,
0.95,0.36,-0.29,10018,11497,,,,4,,,
0.98,0.34,-0.24,9933,11575,,,,4,,,
0.95,0.36,-0.25,10030,11744,,,,4,,,
0.98,0.39,-0.28,10052,11481,,,,4,,,
0.96,0.37,-0.3,9902,11587,,,,4,,,
1,0.37,-0.29,10013,11626,,,,4,,,
1,0.35,-0.25,10019,11631,,,,4,,,
0.99,0.34,-0.3,10008,11616,,,,4,,,
0.99,0.35,-0.28,10019,11725,,,,4,,,
1.02,0.37,-0.26,10083,11565,,,,4,,,
1.01,0.32,-0.3,9969,11586,,,,4,,,
1,0.31,-0.28,9858,11457,,,,4,,,
0.98,0.31,-0.32,9978,11602,,,,4,,,
0.94,0.3,-0.32,9993,11461,,,,4,,,
0.95,0.28,-0.31,9868,11511,,,,4,,,
0.95,0.3,-0.31,9957,11560,,,,4,,,
0.98,0.32,-0.3,9995,11613,,,,4,,,
1,0.35,-0.2,9988,11583,,,,4,,,
0.99,0.32,-0.1,9847,11460,,,,4,,,
1,0.31,-0.17,9948,11589,,,,4,,,
0.99,0.32,-0.22,9991,11587,,,,4,,,
0.98,0.32,-0.24,10121,11593,,,,4,,,
1,0.32,-0.19,9863,11575,,,,4,,,
1,0.36,-0.16,10106,11671,,,,4,,,
0.99,0.36,-0.2,9961,11598,,,,4,,,
0.93,0.35,-0.24,9977,11572,,,,4,,,
0.95,0.35,-0.29,9828,11475,,,,4,,,
0.96,0.32,-0.34,9946,11568,,,,4,,,
0.99,0.35,-0.22,9769,11389,,,,4,,,
1,0.32,-0.17,9929,11539,,,,4,,,
0.98,0.34,-0.17,9979,11552,,,,4,,,
1.02,0.34,-0.2,9987,11561,,,,4,,,
1.01,0.35,-0.21,9932,11421,,,,4,,,
0.98,0.35,-0.25,9877,11522,,,,4,,,
0.99,0.35,-0.22,9946,11565,,,,4,,,
1,0.36,-0.22,9963,11654,,,,4,,,
1,0.34,-0.22,10070,11518,,,,4,,,
0.98,0.35,-0.19,9882,11488,,,,4,,,
0.94,0.34,-0.17,9948,11540,,,,4,,,
0.93,0.36,-0.25,10068,11663,,,,4,,,
0.91,0.37,-0.25,9930,11585,,,,4,,,
0.89,0.34,-0.22,9963,11556,,,,4,,,
0.93,0.32,-0.22,9825,11474,,,,4,,,
0.96,0.32,-0.16,9977,11568,,,,4,,,
0.99,0.31,-0.26,10023,11707,,,,4,,,
0.96,0.3,-0.3,10055,11528,,,,4,,,
1,0.3,-0.28,9971,11574,,,,4,,,
1.06,0.35,-0.21,9845,11557,,,,4,,,
1.04,0.36,-0.26,9961,11614,,,,4,,,
0.99,0.37,-0.25,10019,11617,,,,4,,,
0.99,0.37,-0.29,9944,11519,,,,4,,,
0.95,0.35,-0.31,9839,11452,,,,4,,,
0.94,0.37,-0.24,9935,11557,,,,4,,,
1,0.4,-0.31,10068,11635,,,,4,,,
0.99,0.39,-0.28,9990,11597,,,,4,,,
0.98,0.39,-0.22,9924,11476,,,,4,,,
0.99,0.36,-0.26,9895,11556,,,,4,,,
1,0.37,-0.32,9977,11635,,,,4,,,
1.04,0.4,-0.34,9924,11586,,,,4,,,
1.06,0.4,-0.26,9961,11431,,,,4,,,
1.08,0.39,-0.28,9979,11583,,,,4,,,
1.01,0.39,-0.28,10084,11661,,,,4,,,
1.02,0.37,-0.31,10050,11588,,,,4,,,
1.02,0.39,-0.31,9986,11562,,,,4,,,
0.96,0.4,-0.29,9993,11580,,,,4,,,
0.9,0.35,-0.29,9865,11490,,,,4,,,
0.91,0.36,-0.28,9949,11592,,,,4,,,
0.9,0.35,-0.26,9986,11580,,,,4,,,
0.84,0.36,-0.26,10069,11692,,,,4,,,
0.88,0.4,-0.31,10005,11591,,,,4,,,
0.9,0.37,-0.35,9978,11516,,,,4,,,
0.93,0.36,-0.39,9847,11505,,,,4,,,
0.91,0.41,-0.3,9974,11549,,,,4,,,
0.88,0.39,-0.25,9955,11564,,,,4,,,
0.98,0.4,-0.22,9822,11455,,,,4,,,
0.91,0.36,-0.2,9967,11557,,,,4,,,
0.89,0.36,-0.29,10117,11660,,,,4,,,
0.89,0.39,-0.22,9983,11564,,,,4,,,
0.96,0.39,-0.3,9932,11418,,,,4,,,
0.98,0.36,-0.22,9883,11544,,,,4,,,
0.99,0.4,-0.17,10093,11659,,,,4,,,
0.96,0.37,-0.14,9972,11562,,,,4,,,
0.96,0.35,-0.17,9984,11470,,,,4,,,
1,0.36,-0.17,9956,11554,,,,4,,,
0.99,0.39,-0.2,9979,11576,,,,4,,,
0.96,0.41,-0.24,10094,11650,,,,4,,,
1.01,0.43,-0.22,9964,11599,,,,4,,,
0.96,0.36,-0.19,10002,11488,,,,4,,,
0.98,0.34,-0.19,9899,11572,,,,4,,,
0.98,0.32,-0.2,9973,11588,,,,4,,,
0.99,0.36,-0.28,9976,11560,,,,4,,,
0.99,0.39,-0.32,9846,11481,,,,4,,,
0.99,0.34,-0.34,9951,11561,,,,4,,,
1,0.37,-0.24,10000,11600,,,,4,,,
1.01,0.43,-0.2,10008,11597,,,,4,,,
0.98,0.43,-0.28,9970,11529,,,,4,,,
0.95,0.41,-0.28,9947,11595,,,,4,,,
0.99,0.43,-0.3,10002,11636,,,,4,,,
0.99,0.43,-0.34,10122,11649,,,,4,,,
0.98,0.47,-0.34,9983,11580,,,,4,,,
0.99,0.49,-0.21,9910,11577,,,,4,,,
0.99,0.46,-0.2,10138,11677,,,,4,,,
0.99,0.46,-0.16,9972,11579,,,,4,,,
0.91,0.44,-0.21,9992,11449,,,,4,,,
0.86,0.36,-0.28,9864,11532,,,,4,,,
0.88,0.37,-0.3,9949,11569,,,,4,,,
0.89,0.4,-0.25,9992,11583,,,,4,,,
0.91,0.43,-0.24,9984,11585,,,,4,,,
0.88,0.41,-0.3,9855,11477,,,,4,,,
0.88,0.37,-0.28,9954,11559,,,,4,,,
0.95,0.36,-0.21,9968,11563,,,,4,,,
0.96,0.39,-0.1,10045,11612,,,,4,,,
0.99,0.36,-0.17,9988,11565,,,,4,,,
1.01,0.39,-0.21,9809,11470,,,,4,,,
0.98,0.36,-0.21,9933,11533,,,,4,,,
0.99,0.35,-0.16,9954,11569,,,,4,,,
0.98,0.35,-0.17,9802,11435,,,,4,,,
0.95,0.39,-0.14,9927,11565,,,,4,,,
0.91,0.39,-0.24,10077,11645,,,,4,,,
0.96,0.36,-0.25,9976,11540,,,,4,,,
0.96,0.4,-0.2,9929,11430,,,,4,,,
0.99,0.4,-0.19,9934,11528,,,,4,,,
1,0.37,-0.16,9941,11545,,,,4,,,
1,0.32,-0.19,10093,11654,,,,4,,,
0.93,0.31,-0.16,9962,11551,,,,4,,,
0.86,0.29,-0.22,9970,11558,,,,4,,,
0.96,0.31,-0.3,9941,11525,,,,4,,,
1.11,0.44,-0.35,9944,11661,,,,4,,,
1.14,0.47,-0.21,10019,11611,,,,4,,,
1.09,0.4,-0.17,9933,11563,,,,4,,,
1.02,0.36,-0.14,9783,11455,,,,4,,,
0.91,0.34,-0.21,10081,11668,,,,4,,,
0.91,0.34,-0.31,10012,11586,,,,4,,,
0.9,0.4,-0.39,9918,11548,,,,4,,,
0.94,0.41,-0.35,9951,11535,,,,4,,,
0.98,0.45,-0.28,10097,11658,,,,4,,,
0.99,0.45,-0.19,9867,11476,,,,4,,,
0.98,0.4,-0.19,9963,11673,,,,4,,,
0.95,0.35,-0.19,10067,11650,,,,4,,,
0.95,0.35,-0.28,9973,11555,,,,4,,,
0.89,0.34,-0.32,9820,11464,,,,4,,,
0.93,0.35,-0.34,9933,11681,,,,4,,,
0.96,0.4,-0.31,9964,11589,,,,4,,,
0.98,0.43,-0.21,9986,11451,,,,4,,,
0.99,0.43,-0.13,9910,11516,,,,4,,,
0.99,0.37,-0.21,9975,11583,,,,4,,,
0.95,0.35,-0.25,9968,11440,,,,4,,,
0.98,0.36,-0.28,9940,11582,,,,4,,,
0.99,0.34,-0.28,9983,11577,,,,4,,,
1,0.32,-0.3,10041,11699,,,,4,,,
1,0.31,-0.3,10052,11562,,,,4,,,
0.99,0.34,-0.26,9993,11582,,,,4,,,
0.98,0.31,-0.24,9983,11579,,,,4,,,
1.01,0.32,-0.22,10085,11693,,,,4,,,
1,0.3,-0.24,10007,11548,,,,4,,,
0.96,0.29,-0.2,9950,11562,,,,4,,,
1,0.31,-0.22,9972,11566,,,,4,,,
1,0.34,-0.21,9831,11455,,,,4,,,
0.98,0.34,-0.25,9960,11539,,,,4,,,
0.99,0.3,-0.26,10035,11620,,,,4,,,
1,0.29,-0.29,9923,11469,,,,4,,,
1,0.3,-0.26,9949,11555,,,,4,,,
0.99,0.3,-0.29,10000,11570,,,,4,,,
0.96,0.28,-0.2,9867,11445,,,,4,,,
0.98,0.3,-0.22,9900,11521,,,,4,,,
0.98,0.3,-0.25,9945,11546,,,,4,,,
1.01,0.3,-0.2,10022,11686,,,,4,,,
0.99,0.32,-0.25,10078,11565,,,,4,,,
1,0.32,-0.16,9885,11498,,,,4,,,
1.01,0.31,-0.19,9952,11557,,,,4,,,
0.99,0.3,-0.2,9977,11560,,,,4,,,
1,0.31,-0.19,10075,11633,,,,4,,,
0.99,0.32,-0.26,9952,11681,,,,4,,,
1.01,0.34,-0.26,10076,11588,,,,4,,,
1.01,0.39,-0.25,9966,11580,,,,4,,,
1.01,0.36,-0.17,9845,11580,,,,4,,,
1.05,0.35,-0.14,9952,11676,,,,4,,,
1.02,0.35,-0.2,10069,11597,,,,4,,,
1.04,0.35,-0.24,9797,11485,,,,4,,,
0.99,0.34,-0.22,9924,11574,,,,4,,,
1,0.32,-0.25,9982,11587,,,,4,,,
0.99,0.31,-0.29,10122,11693,,,,4,,,
0.98,0.29,-0.24,9972,11570,,,,4,,,
0.98,0.3,-0.28,9967,11663,,,,4,,,
0.95,0.28,-0.29,9991,11558,,,,4,,,
0.93,0.29,-0.25,9873,11479,,,,4,,,
0.93,0.28,-0.16,9949,11552,,,,4,,,
0.95,0.29,-0.15,9967,11651,,,,4,,,
0.93,0.26,-0.21,10063,11568,,,,4,,,
0.93,0.24,-0.22,9966,11577,,,,4,,,
0.93,0.32,-0.13,9984,11548,,,,4,,,
1,0.31,-0.09,9928,11570,,,,4,,,
0.98,0.32,-0.08,10057,11648,,,,4,,,
1.01,0.32,-0.03,9958,11547,,,,4,,,
1.04,0.32,-0.1,9840,11507,,,,4,,,
1.05,0.36,-0.14,9948,11536,,,,4,,,
1.08,0.32,-0.24,9951,11727,,,,4,,,
1.05,0.35,-0.16,10042,11597,,,,4,,,
1.06,0.36,-0.04,9936,11574,,,,4,,,
1.04,0.37,-0.19,9871,11632,,,,4,,,
1.04,0.4,-0.05,10045,11549,,,,4,,,
0.99,0.37,-0.01,9957,11609,,,,4,,,
1,0.34,-0.1,9888,11488,,,,4,,,
1.01,0.37,-0.15,9961,11611,,,,4,,,
1.02,0.37,0.05,9968,11617,,,,4,,,
1.01,0.37,-0.04,9864,11501,,,,4,,,
0.98,0.35,-0.13,9955,11623,,,,4,,,
0.96,0.39,-0.19,10009,11613,,,,4,,,
0.98,0.37,-0.05,10123,11763,,,,4,,,
0.95,0.37,-0.06,9993,11665,,,,4,,,
0.95,0.41,0.08,10035,11527,,,,4,,,
0.93,0.4,-0.04,9905,11603,,,,4,,,
0.91,0.36,0,9995,11627,,,,4,,,
0.99,0.44,0.01,9997,11650,,,,4,,,
0.96,0.37,-0.01,10128,11757,,,,4,,,
0.95,0.31,-0.06,10061,11622,,,,4,,,
0.95,0.35,-0.03,9933,11545,,,,4,,,
0.99,0.34,-0.01,10010,11657,,,,4,,,
0.95,0.36,-0.06,10034,11653,,,,4,,,
0.91,0.31,-0.1,10142,11627,,,,4,,,
0.99,0.31,-0.1,9892,11506,,,,4,,,
0.96,0.36,-0.04,10010,11671,,,,4,,,
0.96,0.35,0.08,10017,11650,,,,4,,,
0.95,0.32,0.08,10122,11745,,,,4,,,
0.99,0.32,0.01,10047,11480,,,,4,,,
0.98,0.34,-0.05,9949,11739,,,,4,,,
1.01,0.32,-0.09,10037,11632,,,,4,,,
0.99,0.35,-0.08,10029,11594,,,,4,,,
0.96,0.35,-0.03,9907,11495,,,,4,,,
0.95,0.36,-0.06,9975,11600,,,,4,,,
0.9,0.37,-0.04,9986,11620,,,,4,,,
0.9,0.36,0.09,10002,11704,,,,4,,,
0.94,0.37,0.04,10092,11591,,,,4,,,
0.96,0.4,0.01,9885,11520,,,,4,,,
1,0.4,0,9990,11624,,,,4,,,
1,0.41,0,10110,11552,,,,4,,,
0.98,0.4,0,9981,11610,,,,4,,,
1,0.39,-0.01,9990,11662,,,,4,,,
1,0.4,-0.01,10111,11688,,,,4,,,
0.96,0.36,-0.1,10034,11611,,,,4,,,
0.96,0.37,-0.05,9964,11584,,,,4,,,
0.99,0.35,-0.09,10151,11722,,,,4,,,
1,0.39,-0.04,10017,11520,,,,4,,,
1.01,0.41,-0.06,9943,11617,,,,4,,,
1.01,0.45,-0.06,10102,11708,,,,4,,,
0.99,0.47,-0.11,10018,11639,,,,4,,,
0.99,0.47,-0.06,9987,11534,,,,4,,,
0.96,0.47,-0.08,9967,11626,,,,4,,,
0.95,0.47,-0.04,10000,11765,,,,4,,,
0.9,0.45,-0.04,10038,11654,,,,4,,,
0.93,0.45,-0.08,10015,11469,,,,4,,,
0.89,0.46,-0.1,9934,11643,,,,4,,,
0.9,0.44,-0.04,10025,11656,,,,4,,,
0.94,0.36,-0.01,10032,11711,,,,4,,,
0.96,0.36,-0.03,10115,11731,,,,4,,,
0.96,0.34,-0.04,10028,11639,,,,4,,,
0.9,0.31,-0.16,9912,11538,,,,4,,,
0.94,0.31,-0.25,9989,11646,,,,4,,,
0.94,0.31,-0.13,10027,11762,,,,4,,,
0.9,0.32,-0.05,10047,11663,,,,4,,,
0.91,0.32,0.04,10017,11495,,,,4,,,
0.99,0.36,-0.04,9945,11592,,,,4,,,
1,0.43,-0.11,10026,11596,,,,4,,,
0.99,0.4,-0.13,10021,11615,,,,4,,,
0.95,0.37,-0.19,9995,11451,,,,4,,,
1,0.36,-0.16,9889,11553,,,,4,,,
1.01,0.4,-0.15,9986,11598,,,,4,,,
0.99,0.36,-0.2,10002,11674,,,,4,,,
0.98,0.36,-0.2,10095,11660,,,,4,,,
1.09,0.41,-0.19,10002,11591,,,,4,,,
1.04,0.44,-0.15,9881,11499,,,,4,,,
1.02,0.45,-0.15,9971,11617,,,,4,,,
1.09,0.45,-0.06,10023,11643,,,,4,,,
1.04,0.45,-0.08,10073,11632,,,,4,,,
1.06,0.44,-0.17,10029,11478,,,,4,,,
1.08,0.46,-0.17,9920,11597,,,,4,,,
1.04,0.46,-0.17,10013,11651,,,,4,,,
1.02,0.44,-0.21,10028,11539,,,,4,,,
1.01,0.41,-0.24,9932,11578,,,,4,,,
1,0.36,-0.22,10036,11625,,,,4,,,
0.9,0.36,-0.1,10037,11719,,,,4,,,
0.94,0.43,0.09,10131,11616,,,,4,,,
0.95,0.41,-0.09,10014,11623,,,,4,,,
0.98,0.41,-0.25,10075,11732,,,,4,,,
0.98,0.4,-0.31,10034,11606,,,,4,,,
1,0.4,-0.3,9995,11624,,,,4,,,
0.94,0.32,-0.35,9903,11598,,,,4,,,
0.94,0.34,-0.21,10111,11688,,,,4,,,
0.96,0.39,-0.24,10005,11602,,,,4,,,
0.93,0.4,-0.19,9932,11457,,,,4,,,
0.98,0.3,-0.37,10070,11539,,,,4,,,
1,0.35,-0.36,9950,11412,,,,4,,,
1.04,0.41,-0.35,9870,11506,,,,4,,,
1.04,0.4,-0.32,9958,11536,,,,4,,,
1.04,0.36,-0.2,9959,11680,,,,4,,,
1.01,0.4,-0.1,10043,11593,,,,4,,,
1,0.34,0,9978,11582,,,,4,,,
0.99,0.32,-0.05,9821,11427,,,,4,,,
0.98,0.31,-0.22,9948,11550,,,,4,,,
0.96,0.3,-0.3,9873,11526,,,,4,,,
0.96,0.32,-0.34,9960,11563,,,,4,,,
0.96,0.32,-0.3,9968,11612,,,,4,,,
0.96,0.34,-0.21,10041,11624,,,,4,,,
0.99,0.34,-0.16,9950,11624,,,,4,,,
1.01,0.37,-0.15,9846,11509,,,,4,,,
0.99,0.4,-0.15,9963,11567,,,,4,,,
1.01,0.37,-0.21,9983,11651,,,,4,,,
1.01,0.39,-0.16,10074,11665,,,,4,,,
1,0.34,-0.14,10014,11564,,,,4,,,
0.96,0.28,-0.15,9822,11459,,,,4,,,
0.91,0.28,-0.21,9950,11600,,,,4,,,
0.88,0.35,-0.35,10000,11625,,,,4,,,
0.96,0.45,-0.37,10063,11732,,,,4,,,
1.11,0.5,-0.37,10071,11621,,,,4,,,
1.15,0.45,-0.22,10016,11476,,,,4,,,
1,0.39,-0.08,9912,11614,,,,4,,,
0.86,0.32,-0.06,10014,11733,,,,4,,,
0.81,0.32,-0.24,10063,11547,,,,4,,,
0.84,0.36,-0.32,9964,11597,,,,4,,,
0.93,0.37,-0.37,9989,11620,,,,4,,,
1,0.41,-0.39,9987,11589,,,,4,,,
1,0.43,-0.35,10183,11739,,,,4,,,
0.99,0.37,-0.28,9983,11640,,,,4,,,
0.99,0.34,-0.19,9983,11645,,,,4,,,
0.98,0.39,-0.28,10026,11594,,,,4,,,
0.96,0.45,-0.21,9861,11477,,,,4,,,
0.99,0.41,-0.28,9943,11553,,,,4,,,
0.95,0.37,-0.32,9990,11586,,,,4,,,
0.9,0.35,-0.37,10093,11707,,,,4,,,
0.85,0.32,-0.3,10047,11516,,,,4,,,
0.88,0.4,-0.21,9867,11555,,,,4,,,
0.94,0.4,-0.26,9974,11588,,,,4,,,
0.98,0.36,-0.31,9974,11606,,,,4,,,
0.96,0.32,-0.32,10056,11661,,,,4,,,
0.95,0.36,-0.32,10004,11583,,,,4,,,
0.95,0.4,-0.29,9893,11497,,,,4,,,
0.93,0.4,-0.24,9977,11576,,,,4,,,
0.94,0.36,-0.28,9961,11566,,,,4,,,
0.98,0.4,-0.32,10088,11587,,,,4,,,
0.99,0.4,-0.28,9978,11534,,,,4,,,
0.94,0.4,-0.21,9985,11546,,,,4,,,
0.96,0.39,-0.16,10108,11650,,,,4,,,
0.95,0.4,-0.24,10054,11580,,,,4,,,
1.01,0.43,-0.21,9973,11424,,,,4,,,
1.01,0.46,-0.28,9945,11590,,,,4,,,
0.98,0.4,-0.31,9966,11433,,,,4,,,
0.99,0.41,-0.32,9854,11523,,,,4,,,
1.01,0.44,-0.3,9952,11571,,,,4,,,
1,0.41,-0.32,9961,11620,,,,4,,,
0.96,0.45,-0.35,10065,11604,,,,4,,,
0.9,0.43,-0.31,9994,11561,,,,4,,,
0.95,0.46,-0.19,9958,11583,,,,4,,,
0.96,0.47,-0.2,9976,11513,,,,4,,,
0.99,0.47,-0.3,9837,11488,,,,4,,,
0.96,0.46,-0.34,9949,11531,,,,4,,,
0.93,0.44,-0.36,9929,11602,,,,4,,,
0.88,0.4,-0.32,10027,11594,,,,4,,,
0.9,0.41,-0.25,9959,11548,,,,4,,,
0.91,0.41,-0.28,9812,11554,,,,4,,,
0.94,0.43,-0.29,9947,11505,,,,4,,,
0.91,0.44,-0.37,9811,11473,,,,4,,,
0.91,0.46,-0.39,9952,11535,,,,4,,,
0.94,0.41,-0.36,9933,11584,,,,4,,,
0.93,0.4,-0.28,10029,11564,,,,4,,,
0.95,0.43,-0.28,9964,11523,,,,4,,,
0.96,0.36,-0.29,9838,11589,,,,4,,,
0.96,0.34,-0.31,9886,11546,,,,4,,,
0.94,0.34,-0.28,9930,11506,,,,4,,,
0.91,0.4,-0.22,9810,11448,,,,4,,,
0.89,0.39,-0.26,9942,11678,,,,4,,,
0.9,0.36,-0.26,10058,11541,,,,4,,,
0.95,0.37,-0.3,9936,11536,,,,4,,,
1.02,0.41,-0.35,9772,11378,,,,4,,,
1.06,0.4,-0.25,9901,11503,,,,4,,,
1.04,0.41,-0.13,9946,11621,,,,4,,,
1.01,0.4,-0.04,9959,11569,,,,4,,,
1.02,0.36,0.01,9824,11480,,,,4,,,
0.99,0.34,-0.03,9964,11567,,,,4,,,
0.96,0.34,-0.1,9954,11578,,,,4,,,
0.94,0.32,-0.2,10058,11619,,,,4,,,
0.96,0.34,-0.19,9970,11576,,,,4,,,
0.99,0.35,-0.14,9907,11456,,,,4,,,
1,0.34,-0.17,9881,11551,,,,4,,,
1,0.34,-0.14,9959,11572,,,,4,,,
1.02,0.36,-0.1,9970,11755,,,,4,,,
1.05,0.34,-0.09,10102,11595,,,,4,,,
1.01,0.32,-0.15,9850,11529,,,,4,,,
1,0.32,-0.1,9929,11583,,,,4,,,
1.04,0.34,-0.08,9976,11577,,,,4,,,
1.01,0.35,-0.01,10096,11684,,,,4,,,
0.84,0.31,-0.2,9998,11628,,,,4,,,
0.88,0.37,-0.3,9995,11597,,,,4,,,
0.93,0.41,-0.32,9813,11445,,,,4,,,
0.99,0.45,-0.25,9940,11549,,,,4,,,
1.08,0.43,-0.25,9985,11581,,,,4,,,
1.04,0.36,-0.29,10100,11664,,,,4,,,
0.93,0.34,-0.16,9997,11599,,,,4,,,
0.85,0.34,-0.05,9904,11463,,,,4,,,
0.86,0.39,-0.05,9964,11552,,,,4,,,
0.84,0.41,-0.14,9967,11609,,,,4,,,
0.85,0.44,-0.25,10157,11681,,,,4,,,
0.96,0.43,-0.24,10061,11606,,,,4,,,
0.99,0.37,-0.26,9925,11632,,,,4,,,
0.99,0.36,-0.13,9880,11585,,,,4,,,
0.98,0.32,-0.09,9961,11567,,,,4,,,
0.9,0.29,-0.06,10082,11672,,,,4,,,
0.85,0.29,-0.14,9938,11518,,,,4,,,
0.95,0.35,-0.2,9964,11475,,,,4,,,
0.99,0.36,-0.21,9850,11545,,,,4,,,
0.95,0.37,-0.2,9975,11550,,,,4,,,
0.96,0.37,-0.21,9986,11697,,,,4,,,
0.99,0.39,-0.11,10064,11618,,,,4,,,
0.98,0.34,-0.09,9984,11574,,,,4,,,
0.99,0.31,-0.13,9809,11448,,,,4,,,
0.99,0.35,-0.08,9922,11540,,,,4,,,
1,0.34,-0.19,9955,11569,,,,4,,,
1.01,0.35,-0.19,10149,11572,,,,4,,,
1.01,0.35,-0.1,9911,11465,,,,4,,,
1.01,0.36,-0.05,9882,11545,,,,4,,,
1.01,0.39,-0.16,9950,11584,,,,4,,,
1,0.4,-0.24,9985,11711,,,,4,,,
1.01,0.37,-0.24,10030,11548,,,,4,,,
1.02,0.37,-0.26,9993,11673,,,,4,,,
1.05,0.41,-0.28,9948,11591,,,,4,,,
1.01,0.43,-0.15,9965,11562,,,,4,,,
0.94,0.36,-0.06,9960,11565,,,,4,,,
0.96,0.36,-0.09,10137,11707,,,,4,,,
1.05,0.4,-0.22,10029,11615,,,,4,,,
0.99,0.39,-0.32,9935,11579,,,,4,,,
0.99,0.41,-0.24,9847,11503,,,,4,,,
1,0.39,-0.28,9966,11561,,,,4,,,
1,0.36,-0.26,9962,11552,,,,4,,,
0.94,0.34,-0.25,10100,11564,,,,4,,,
0.99,0.37,-0.26,9842,11568,,,,4,,,
1,0.44,-0.25,10099,11691,,,,4,,,
1.01,0.41,-0.21,9996,11584,,,,4,,,
0.98,0.37,-0.13,9991,11539,,,,4,,,
0.88,0.37,-0.1,9858,11490,,,,4,,,
0.81,0.31,-0.2,9934,11556,,,,4,,,
0.77,0.29,-0.26,9958,11579,,,,4,,,
0.82,0.31,-0.32,9979,11360,,,,4,,,
0.91,0.31,-0.32,9834,11480,,,,4,,,
0.94,0.32,-0.21,9976,11554,,,,4,,,
0.99,0.34,-0.17,9976,11568,,,,4,,,
0.99,0.34,-0.06,9939,11590,,,,4,,,
0.99,0.34,-0.01,9826,11461,,,,4,,,
0.99,0.34,-0.06,9937,11533,,,,4,,,
0.96,0.34,-0.14,9964,11550,,,,4,,,
0.99,0.32,-0.19,10024,11684,,,,4,,,
0.94,0.3,-0.19,10013,11556,,,,4,,,
0.94,0.3,-0.14,10088,11648,,,,4,,,
0.95,0.31,-0.1,9993,11497,,,,4,,,
0.98,0.29,-0.13,9897,11531,,,,4,,,
0.99,0.3,-0.17,9923,11548,,,,4,,,
1.02,0.31,-0.19,10001,11408,,,,4,,,
1.01,0.34,-0.21,9950,11566,,,,4,,,
1.01,0.34,-0.2,10103,11661,,,,4,,,
1,0.32,-0.24,10011,11579,,,,4,,,
1,0.31,-0.21,9913,11575,,,,4,,,
1.01,0.32,-0.14,9827,11467,,,,4,,,
1.05,0.31,-0.08,10049,11674,,,,4,,,
0.95,0.32,-0.05,10014,11546,,,,4,,,
0.95,0.34,-0.22,9913,11560,,,,4,,,
1.02,0.44,-0.35,9857,11482,,,,4,,,
1.1,0.47,-0.36,9946,11574,,,,4,,,
1.01,0.4,-0.29,9950,11583,,,,4,,,
0.98,0.35,-0.14,10074,11688,,,,4,,,
0.93,0.34,-0.16,9991,11574,,,,4,,,
0.89,0.34,-0.25,9941,11424,,,,4,,,
0.95,0.43,-0.28,9897,11524,,,,4,,,
0.99,0.41,-0.35,9971,11459,,,,4,,,
0.94,0.41,-0.39,9876,11466,,,,4,,,
0.96,0.36,-0.3,9943,11538,,,,4,,,
0.96,0.36,-0.2,9976,11536,,,,4,,,
0.9,0.36,-0.16,10068,11623,,,,4,,,
0.94,0.4,-0.3,9941,11528,,,,4,,,
0.94,0.39,-0.25,9934,11559,,,,4,,,
0.95,0.41,-0.29,10067,11570,,,,4,,,
0.89,0.44,-0.22,9818,11475,,,,4,,,
0.94,0.43,-0.19,9952,11581,,,,4,,,
0.96,0.39,-0.26,9917,11634,,,,4,,,
0.96,0.35,-0.2,9949,11546,,,,4,,,
0.96,0.34,-0.24,9892,11412,,,,4,,,
0.98,0.36,-0.2,9854,11499,,,,4,,,
1,0.36,-0.15,9944,11647,,,,4,,,
0.95,0.34,-0.17,9970,11530,,,,4,,,
0.94,0.34,-0.22,10055,11637,,,,4,,,
0.98,0.35,-0.25,9993,11448,,,,4,,,
0.95,0.34,-0.3,9861,11514,,,,4,,,
0.94,0.36,-0.32,9956,11625,,,,4,,,
0.96,0.41,-0.29,9867,11433,,,,4,,,
0.99,0.41,-0.22,9865,11498,,,,4,,,
0.98,0.44,-0.32,9931,11640,,,,4,,,
0.99,0.43,-0.36,9965,11506,,,,4,,,
0.96,0.36,-0.34,9917,11534,,,,4,,,
0.95,0.34,-0.29,9940,11536,,,,4,,,
0.94,0.36,-0.29,9931,11683,,,,4,,,
0.95,0.37,-0.32,10038,11542,,,,4,,,
0.93,0.43,-0.36,9962,11548,,,,4,,,
0.91,0.43,-0.34,9949,11423,,,,4,,,
0.93,0.44,-0.29,9835,11438,,,,4,,,
0.94,0.4,-0.31,9911,11501,,,,4,,,
0.96,0.37,-0.31,9931,11534,,,,4,,,
0.94,0.37,-0.3,9937,11529,,,,4,,,
0.93,0.32,-0.28,9797,11390,,,,4,,,
0.89,0.32,-0.28,9901,11536,,,,4,,,
0.9,0.32,-0.26,10028,11634,,,,4,,,
0.91,0.32,-0.22,9979,11540,,,,4,,,
0.9,0.31,-0.29,9833,11459,,,,4,,,
0.9,0.34,-0.26,9928,11513,,,,4,,,
0.94,0.36,-0.26,9944,11524,,,,4,,,
0.95,0.41,-0.3,10036,11668,,,,4,,,
0.95,0.4,-0.28,9928,11557,,,,4,,,
1,0.4,-0.22,9958,11517,,,,4,,,
1,0.37,-0.22,9940,11564,,,,4,,,
1,0.35,-0.2,10070,11587,,,,4,,,
1,0.35,-0.24,9944,11532,,,,4,,,
1,0.35,-0.19,9848,11513,,,,4,,,
1,0.34,-0.24,9804,11414,,,,4,,,
1,0.35,-0.17,9882,11515,,,,4,,,
1.01,0.32,-0.26,9928,11510,,,,4,,,
1,0.34,-0.28,10006,11598,,,,4,,,
0.98,0.37,-0.24,10000,11510,,,,4,,,
0.99,0.35,-0.29,9838,11487,,,,4,,,
1.05,0.37,-0.21,9930,11534,,,,4,,,
1.01,0.39,-0.26,9936,11674,,,,4,,,
1,0.4,-0.24,10056,11541,,,,4,,,
0.96,0.35,-0.2,9928,11539,,,,4,,,
0.94,0.34,-0.19,9942,11523,,,,4,,,
0.98,0.35,-0.25,9949,11682,,,,4,,,
0.96,0.37,-0.26,10048,11541,,,,4,,,
1,0.4,-0.26,9979,11554,,,,4,,,
1.02,0.37,-0.16,9825,11430,,,,4,,,
1,0.41,-0.13,9843,11541,,,,4,,,
1.01,0.39,-0.1,10099,11637,,,,4,,,
1.02,0.36,-0.17,9993,11541,,,,4,,,
1,0.35,-0.21,9950,11511,,,,4,,,
0.99,0.35,-0.22,9831,11404,,,,4,,,
1,0.43,-0.29,9945,11407,,,,4,,,
1.02,0.43,-0.25,9910,11502,,,,4,,,
1.02,0.43,-0.17,9945,11623,,,,4,,,
0.95,0.35,-0.17,9932,11522,,,,4,,,
0.96,0.34,-0.1,9950,11412,,,,4,,,
0.95,0.32,-0.19,9857,11556,,,,4,,,
0.95,0.32,-0.3,9949,11562,,,,4,,,
0.94,0.34,-0.32,10072,11645,,,,4,,,
0.94,0.37,-0.25,9814,11429,,,,4,,,
0.96,0.4,-0.22,9929,11622,,,,4,,,
0.94,0.36,-0.24,9967,11632,,,,4,,,
0.93,0.35,-0.26,9862,11468,,,,4,,,
0.95,0.35,-0.29,9962,11532,,,,4,,,
0.94,0.35,-0.31,9929,11619,,,,4,,,
0.96,0.32,-0.3,10058,11596,,,,4,,,
0.98,0.39,-0.3,9965,11527,,,,4,,,
0.94,0.37,-0.26,9825,11459,,,,4,,,
0.94,0.36,-0.3,9937,11531,,,,4,,,
0.99,0.43,-0.34,9941,11545,,,,4,,,
0.98,0.44,-0.34,10041,11617,,,,4,,,
0.95,0.41,-0.25,9964,11525,,,,4,,,
0.94,0.39,-0.22,9964,11546,,,,4,,,
0.96,0.39,-0.16,10124,11642,,,,4,,,
1,0.39,-0.15,9961,11547,,,,4,,,
1.01,0.44,-0.15,9931,11365,,,,4,,,
1.02,0.44,-0.19,9877,11539,,,,4,,,
0.99,0.4,-0.25,10057,11636,,,,4,,,
1,0.4,-0.25,9947,11576,,,,4,,,
0.98,0.39,-0.15,9818,11426,,,,4,,,
0.94,0.36,-0.16,9909,11535,,,,4,,,
0.94,0.39,-0.13,9948,11544,,,,4,,,
0.96,0.4,-0.16,9990,11520,,,,4,,,
0.96,0.37,-0.2,9844,11473,,,,4,,,
0.95,0.35,-0.2,9947,11698,,,,4,,,
0.95,0.34,-0.2,10046,11552,,,,4,,,
0.98,0.36,-0.19,9969,11526,,,,4,,,
0.99,0.35,-0.19,9886,11473,,,,4,,,
1,0.37,-0.2,9907,11540,,,,4,,,
0.99,0.34,-0.21,9930,11619,,,,4,,,
0.99,0.35,-0.19,9917,11563,,,,4,,,
1,0.37,-0.15,9919,11369,,,,4,,,
1,0.35,-0.16,9877,11498,,,,4,,,
1.01,0.35,-0.22,9956,11681,,,,4,,,
1.01,0.36,-0.24,10046,11552,,,,4,,,
1.01,0.39,-0.11,9942,11533,,,,4,,,
1.01,0.43,-0.21,9929,11527,,,,4,,,
1.02,0.41,-0.28,9935,11553,,,,4,,,
0.96,0.35,-0.35,9834,11425,,,,4,,,
0.93,0.35,-0.32,9921,11567,,,,4,,,
0.95,0.36,-0.34,10025,11602,,,,4,,,
0.99,0.39,-0.31,9944,11489,,,,4,,,
1.01,0.4,-0.32,9835,11627,,,,4,,,
1,0.34,-0.26,9872,11476,,,,4,,,
0.85,0.35,-0.28,9936,11493,,,,4,,,
0.82,0.36,-0.19,9777,11412,,,,4,,,
0.95,0.35,-0.16,9885,11492,,,,4,,,
1.01,0.35,-0.19,9896,11517,,,,4,,,
1,0.35,-0.14,10013,11580,,,,4,,,
1,0.34,-0.11,9932,11502,,,,4,,,
0.99,0.31,-0.21,9886,11377,,,,4,,,
1,0.31,-0.26,9845,11442,,,,4,,,
0.99,0.32,-0.29,9905,11467,,,,4,,,
0.98,0.31,-0.25,9949,11657,,,,4,,,
0.99,0.32,-0.15,9982,11449,,,,4,,,
1.02,0.3,-0.16,9910,11487,,,,4,,,
0.96,0.28,-0.15,9801,11368,,,,4,,,
0.95,0.31,-0.11,9882,11433,,,,4,,,
0.94,0.31,-0.1,9880,11425,,,,4,,,
0.95,0.34,-0.06,9999,11399,,,,4,,,
0.96,0.32,-0.03,9763,11353,,,,4,,,
0.95,0.36,0.01,9867,11426,,,,4,,,
0.95,0.39,-0.09,9878,11422,,,,4,,,
0.95,0.36,-0.05,10004,11544,,,,4,,,
1.01,0.35,-0.06,9926,11492,,,,4,,,
1.02,0.37,0,9893,11360,,,,4,,,
1.05,0.4,-0.08,9860,11472,,,,4,,,
1.04,0.41,-0.1,9905,11479,,,,4,,,
1.08,0.39,-0.09,9965,11645,,,,4,,,
1.02,0.36,-0.05,9985,11471,,,,4,,,
1,0.35,-0.14,9912,11529,,,,4,,,
1.02,0.39,-0.19,9928,11343,,,,4,,,
1.01,0.43,-0.17,9929,11502,,,,4,,,
0.98,0.4,-0.25,10002,11633,,,,4,,,
1.01,0.44,-0.22,10000,11453,,,,4,,,
1.04,0.49,-0.16,9919,11518,,,,4,,,
1.04,0.47,-0.1,9955,11683,,,,4,,,
1,0.41,-0.17,10012,11536,,,,4,,,
0.96,0.35,-0.21,9981,11522,,,,4,,,
0.95,0.35,-0.32,9847,11465,,,,4,,,
0.95,0.36,-0.34,9941,11530,,,,4,,,
0.91,0.36,-0.25,10048,11628,,,,4,,,
0.88,0.36,-0.29,9961,11570,,,,4,,,
0.9,0.39,-0.26,9945,11460,,,,4,,,
0.89,0.4,-0.21,9908,11498,,,,4,,,
0.89,0.43,-0.17,9948,11530,,,,4,,,
0.85,0.46,-0.13,9955,11534,,,,4,,,
0.85,0.45,-0.11,9831,11471,,,,4,,,
0.9,0.41,-0.11,9968,11559,,,,4,,,
0.95,0.41,-0.22,10078,11556,,,,4,,,
0.89,0.35,-0.22,9949,11571,,,,4,,,
0.89,0.34,-0.22,9817,11482,,,,4,,,
0.84,0.31,-0.22,9937,11561,,,,4,,,
0.82,0.32,-0.25,9964,11563,,,,4,,,
0.88,0.37,-0.21,10095,11658,,,,4,,,
0.98,0.4,-0.2,9989,11569,,,,4,,,
1,0.46,-0.25,9966,11412,,,,4,,,
0.96,0.44,-0.21,9885,11497,,,,4,,,
0.93,0.39,-0.21,9949,11526,,,,4,,,
0.94,0.37,-0.15,9917,11519,,,,4,,,
1,0.44,-0.2,9929,11313,,,,4,,,
1.04,0.47,-0.19,9830,11514,,,,4,,,
1.02,0.45,-0.09,10061,11645,,,,4,,,
1.01,0.43,-0.13,9909,11539,,,,4,,,
0.98,0.36,-0.08,9935,11403,,,,4,,,
1,0.41,-0.06,9837,11487,,,,4,,,
1.05,0.43,-0.09,9924,11502,,,,4,,,
1.06,0.41,-0.08,10025,11623,,,,4,,,
1.05,0.43,-0.08,9940,11511,,,,4,,,
1.04,0.4,-0.08,9888,11370,,,,4,,,
1,0.36,-0.09,9835,11481,,,,4,,,
0.99,0.37,-0.19,9898,11611,,,,4,,,
1,0.44,-0.11,9891,11521,,,,4,,,
1,0.41,-0.13,9947,11361,,,,4,,,
0.99,0.43,-0.08,9839,11439,,,,4,,,
0.99,0.39,-0.04,9922,11474,,,,4,,,
0.91,0.4,-0.04,9915,11501,,,,4,,,
0.93,0.43,-0.06,10016,11448,,,,4,,,
0.93,0.41,-0.05,9899,11501,,,,4,,,
0.98,0.43,-0.13,9797,11399,,,,4,,,
0.95,0.43,-0.1,9907,11474,,,,4,,,
0.94,0.4,-0.08,9911,11517,,,,4,,,
0.96,0.44,-0.09,10059,11604,,,,4,,,
0.98,0.41,-0.06,9948,11511,,,,4,,,
1.01,0.43,-0.22,9971,11370,,,,4,,,
1,0.41,-0.2,9862,11485,,,,4,,,
0.98,0.36,-0.13,9942,11523,,,,4,,,
0.99,0.35,-0.14,9806,11403,,,,4,,,
0.99,0.4,-0.2,9951,11550,,,,4,,,
1,0.43,-0.24,9937,11543,,,,4,,,
0.93,0.41,-0.31,10040,11625,,,,4,,,
1,0.41,-0.32,9989,11547,,,,4,,,
0.99,0.43,-0.31,9972,11533,,,,4,,,
1,0.44,-0.29,9799,11431,,,,4,,,
0.99,0.37,-0.31,9933,11541,,,,4,,,
0.95,0.34,-0.25,9948,11535,,,,4,,,
0.9,0.31,-0.29,10095,11676,,,,4,,,
0.91,0.31,-0.25,9906,11503,,,,4,,,
0.93,0.32,-0.26,9928,11498,,,,4,,,
0.94,0.32,-0.3,9965,11611,,,,4,,,
0.89,0.3,-0.3,10005,11467,,,,4,,,
0.89,0.31,-0.26,9943,11565,,,,4,,,
0.9,0.34,-0.22,9824,11512,,,,4,,,
0.95,0.35,-0.28,9936,11628,,,,4,,,
0.93,0.32,-0.22,9998,11529,,,,4,,,
0.95,0.36,-0.2,9937,11346,,,,4,,,
0.99,0.35,-0.29,9813,11454,,,,4,,,
1,0.32,-0.3,10012,11497,,,,4,,,
0.99,0.36,-0.29,9817,11384,,,,4,,,
0.99,0.34,-0.32,9894,11407,,,,4,,,
1.01,0.4,-0.32,9822,11475,,,,4,,,
1,0.37,-0.3,9898,11485,,,,4,,,
0.99,0.34,-0.26,9884,11557,,,,4,,,
1.02,0.34,-0.29,9984,11550,,,,4,,,
1.02,0.36,-0.3,9945,11482,,,,4,,,
0.95,0.36,-0.29,9988,11573,,,,4,,,
1.01,0.39,-0.39,9924,11501,,,,4,,,
1.09,0.41,-0.4,9918,11292,,,,4,,,
1.05,0.37,-0.3,9834,11438,,,,4,,,
0.98,0.34,-0.26,9925,11386,,,,4,,,
0.95,0.28,-0.26,9902,11496,,,,4,,,
0.93,0.32,-0.26,9910,11490,,,,4,,,
0.99,0.37,-0.34,10003,11572,,,,4,,,
1.01,0.37,-0.36,9856,11447,,,,4,,,
1,0.36,-0.31,9930,11471,,,,4,,,
0.95,0.35,-0.24,9923,11542,,,,4,,,
0.95,0.36,-0.29,9985,11541,,,,4,,,
0.96,0.36,-0.28,9927,11428,,,,4,,,
0.98,0.41,-0.36,9825,11374,,,,4,,,
0.95,0.45,-0.37,9843,11485,,,,4,,,
0.99,0.46,-0.34,9985,11558,,,,4,,,
0.98,0.49,-0.29,9931,11450,,,,4,,,
0.96,0.46,-0.22,9895,11285,,,,4,,,
0.95,0.46,-0.2,9813,11450,,,,4,,,
0.94,0.45,-0.25,9927,11603,,,,4,,,
0.98,0.47,-0.24,9899,11517,,,,4,,,
0.98,0.47,-0.21,9937,11313,,,,4,,,
0.98,0.45,-0.25,9812,11470,,,,4,,,
1,0.43,-0.3,9910,11517,,,,4,,,
0.99,0.39,-0.21,9934,11516,,,,4,,,
0.98,0.35,-0.17,9932,11416,,,,4,,,
0.96,0.39,-0.2,9957,11522,,,,4,,,
0.98,0.36,-0.29,9951,11655,,,,4,,,
0.96,0.37,-0.19,10029,11532,,,,4,,,
0.98,0.35,-0.22,9955,11543,,,,4,,,
0.94,0.34,-0.2,9823,11554,,,,4,,,
0.94,0.37,-0.17,9974,11661,,,,4,,,
0.95,0.34,-0.2,10022,11560,,,,4,,,
0.9,0.34,-0.3,9928,11587,,,,4,,,
0.95,0.32,-0.29,9836,11575,,,,4,,,
0.94,0.32,-0.22,10097,11587,,,,4,,,
0.95,0.31,-0.3,10062,11669,,,,4,,,
0.96,0.34,-0.32,10029,11571,,,,4,,,
0.94,0.32,-0.29,9942,11585,,,,4,,,
0.95,0.3,-0.25,9839,11452,,,,4,,,
0.98,0.31,-0.2,9960,11465,,,,4,,,
0.99,0.35,-0.24,9969,11554,,,,4,,,
0.96,0.36,-0.2,10096,11667,,,,4,,,
0.94,0.35,-0.25,9964,11576,,,,4,,,
0.95,0.35,-0.3,9973,11480,,,,4,,,
0.94,0.35,-0.34,9858,11519,,,,4,,,
0.95,0.37,-0.32,9959,11540,,,,4,,,
0.96,0.36,-0.19,9935,11559,,,,4,,,
0.96,0.39,-0.21,10038,11608,,,,4,,,
0.93,0.39,-0.29,9968,11463,,,,4,,,
0.93,0.39,-0.29,9918,11525,,,,4,,,
0.94,0.39,-0.31,9948,11543,,,,4,,,
0.94,0.41,-0.3,10070,11650,,,,4,,,
0.89,0.43,-0.29,10000,11538,,,,4,,,
0.95,0.47,-0.25,9944,11465,,,,4,,,
1.04,0.5,-0.32,9828,11467,,,,4,,,
1.04,0.49,-0.36,9937,11606,,,,4,,,
0.98,0.45,-0.37,9975,11451,,,,4,,,
0.94,0.43,-0.39,9919,11485,,,,4,,,
0.9,0.43,-0.28,9779,11385,,,,4,,,
0.91,0.43,-0.2,9875,11468,,,,4,,,
0.96,0.45,-0.26,9918,11556,,,,4,,,
0.96,0.45,-0.31,10009,11553,,,,4,,,
0.94,0.45,-0.36,9939,11473,,,,4,,,
0.89,0.46,-0.35,9884,11549,,,,4,,,
0.88,0.45,-0.32,9916,11479,,,,4,,,
0.88,0.41,-0.29,10010,11324,,,,4,,,
0.9,0.4,-0.32,9819,11457,,,,4,,,
0.9,0.4,-0.3,9903,11460,,,,4,,,
0.89,0.4,-0.36,9896,11632,,,,4,,,
0.93,0.43,-0.35,10012,11450,,,,4,,,
0.93,0.45,-0.3,9875,11466,,,,4,,,
0.93,0.44,-0.28,9910,11563,,,,4,,,
0.98,0.43,-0.21,9988,11445,,,,4,,,
1.05,0.41,-0.17,9771,11444,,,,4,,,
1,0.44,-0.22,9887,11624,,,,4,,,
0.96,0.41,-0.29,9974,11505,,,,4,,,
0.96,0.44,-0.24,9800,11477,,,,4,,,
0.96,0.41,-0.22,9867,11586,,,,4,,,
0.93,0.37,-0.25,9983,11525,,,,4,,,
0.99,0.39,-0.21,9906,11498,,,,4,,,
0.99,0.4,-0.19,9821,11368,,,,4,,,
0.99,0.36,-0.28,9862,11491,,,,4,,,
0.99,0.39,-0.26,9908,11483,,,,4,,,
0.99,0.41,-0.28,10076,11585,,,,4,,,
0.98,0.41,-0.25,9854,11512,,,,4,,,
0.99,0.41,-0.22,9767,11361,,,,4,,,
0.99,0.43,-0.2,9894,11491,,,,4,,,
1,0.5,-0.34,9815,11505,,,,4,,,
0.94,0.45,-0.13,9913,11493,,,,4,,,
0.86,0.39,-0.08,10040,11624,,,,4,,,
0.86,0.39,-0.1,9938,11473,,,,4,,,
0.88,0.4,-0.25,9814,11438,,,,4,,,
0.9,0.46,-0.3,9906,11509,,,,4,,,
0.96,0.5,-0.34,9925,11539,,,,4,,,
0.96,0.47,-0.28,10021,11638,,,,4,,,
1,0.47,-0.21,9941,11522,,,,4,,,
0.96,0.45,-0.16,9856,11435,,,,4,,,
0.95,0.37,-0.22,9931,11519,,,,4,,,
0.93,0.39,-0.31,9934,11576,,,,4,,,
0.94,0.37,-0.29,10005,11602,,,,4,,,
0.98,0.41,-0.29,9962,11571,,,,4,,,
0.99,0.44,-0.31,9784,11396,,,,4,,,
0.98,0.43,-0.32,9898,11526,,,,4,,,
0.93,0.37,-0.28,9938,11518,,,,4,,,
0.88,0.36,-0.26,10027,11613,,,,4,,,
0.9,0.34,-0.26,9964,11547,,,,4,,,
0.95,0.36,-0.29,9802,11397,,,,4,,,
0.96,0.39,-0.3,9891,11492,,,,4,,,
0.96,0.41,-0.3,9956,11523,,,,4,,,
0.95,0.4,-0.22,9996,11681,,,,4,,,
0.91,0.39,-0.24,10031,11531,,,,4,,,
0.95,0.39,-0.26,9959,11523,,,,4,,,
0.9,0.37,-0.28,9860,11417,,,,4,,,
0.89,0.4,-0.32,9912,11506,,,,4,,,
0.88,0.4,-0.3,9923,11537,,,,4,,,
0.94,0.4,-0.3,9855,11416,,,,4,,,
0.91,0.41,-0.21,9931,11526,,,,4,,,
0.91,0.41,-0.24,9942,11488,,,,4,,,
0.94,0.43,-0.25,10017,11603,,,,4,,,
0.91,0.41,-0.25,9947,11496,,,,4,,,
0.94,0.41,-0.29,9937,11349,,,,4,,,
0.99,0.44,-0.31,9834,11453,,,,4,,,
0.98,0.43,-0.3,9924,11501,,,,4,,,
0.98,0.45,-0.3,9913,11691,,,,4,,,
0.99,0.46,-0.3,9838,11507,,,,4,,,
0.99,0.46,-0.3,10065,11608,,,,4,,,
0.94,0.45,-0.29,9908,11541,,,,4,,,
0.89,0.46,-0.28,9926,11431,,,,4,,,
0.99,0.5,-0.3,9881,11471,,,,4,,,
1.04,0.5,-0.34,9935,11498,,,,4,,,
0.99,0.49,-0.36,10027,11574,,,,4,,,
0.93,0.45,-0.32,9882,11484,,,,4,,,
0.84,0.43,-0.3,9928,11318,,,,4,,,
0.84,0.43,-0.31,9809,11377,,,,4,,,
0.89,0.46,-0.32,9875,11427,,,,4,,,
0.89,0.5,-0.36,9886,11424,,,,4,,,
0.95,0.5,-0.37,9952,11484,,,,4,,,
0.95,0.49,-0.36,9912,11313,,,,4,,,
0.93,0.46,-0.31,9848,11416,,,,4,,,
0.9,0.44,-0.17,9896,11436,,,,4,,,
0.91,0.43,-0.26,9980,11498,,,,4,,,
0.9,0.46,-0.28,9883,11429,,,,4,,,
0.94,0.46,-0.24,9818,11395,,,,4,,,
0.95,0.41,-0.28,9862,11435,,,,4,,,
0.85,0.4,-0.26,9976,11396,,,,4,,,
0.91,0.39,-0.22,10001,11508,,,,4,,,
0.94,0.43,-0.31,9903,11410,,,,4,,,
0.98,0.44,-0.29,9869,11359,,,,4,,,
0.99,0.44,-0.26,9857,11395,,,,4,,,
0.99,0.43,-0.2,9848,11521,,,,4,,,
1,0.37,-0.11,9867,11373,,,,4,,,
0.98,0.39,-0.2,9768,11335,,,,4,,,
0.95,0.36,-0.28,9853,11445,,,,4,,,
0.91,0.37,-0.29,9879,11423,,,,4,,,
0.91,0.35,-0.22,10001,11534,,,,4,,,
0.93,0.37,-0.24,9924,11433,,,,4,,,
0.93,0.31,-0.21,9757,11296,,,,4,,,
0.94,0.34,-0.22,9842,11456,,,,4,,,
0.91,0.39,-0.22,10008,11477,,,,4,,,
0.95,0.41,-0.28,9799,11588,,,,4,,,
0.98,0.41,-0.25,9821,11345,,,,4,,,
0.98,0.41,-0.29,9879,11486,,,,4,,,
0.95,0.43,-0.2,9943,11496,,,,4,,,
0.98,0.39,-0.19,10000,11619,,,,4,,,
0.95,0.4,-0.28,10018,11445,,,,4,,,
0.94,0.39,-0.3,9929,11514,,,,4,,,
0.98,0.46,-0.26,9918,11570,,,,4,,,
1.01,0.51,-0.34,10030,11540,,,,4,,,
1.12,0.49,-0.28,9921,11461,,,,4,,,
1.02,0.44,-0.2,9800,11340,,,,4,,,
1.01,0.45,-0.25,9891,11452,,,,4,,,
0.95,0.4,-0.19,10035,11582,,,,4,,,
0.91,0.47,-0.3,9960,11461,,,,4,,,
0.86,0.47,-0.36,9932,11319,,,,4,,,
0.88,0.47,-0.35,9800,11403,,,,4,,,
0.9,0.43,-0.36,9914,11435,,,,4,,,
0.91,0.41,-0.32,9890,11552,,,,4,,,
0.86,0.36,-0.29,9994,11485,,,,4,,,
0.94,0.36,-0.24,9912,11380,,,,4,,,
0.96,0.37,-0.3,9892,11406,,,,4,,,
0.94,0.4,-0.25,9886,11456,,,,4,,,
0.95,0.43,-0.35,9973,11501,,,,4,,,
0.95,0.4,-0.35,9905,11388,,,,4,,,
0.94,0.37,-0.3,9811,11348,,,,4,,,
0.95,0.34,-0.26,9825,11387,,,,4,,,
0.93,0.32,-0.21,9896,11413,,,,4,,,
0.9,0.31,-0.28,9923,11563,,,,4,,,
0.98,0.34,-0.22,9814,11429,,,,4,,,
1,0.43,-0.2,9903,11433,,,,4,,,
1,0.37,-0.29,9878,11250,,,,4,,,
1.01,0.32,-0.3,9798,11380,,,,4,,,
0.98,0.34,-0.25,9867,11439,,,,4,,,
1.01,0.35,-0.21,9868,11565,,,,4,,,
1.04,0.4,-0.25,9904,11356,,,,4,,,
1.02,0.36,-0.26,9783,11421,,,,4,,,
1.01,0.43,-0.19,9919,11528,,,,4,,,
1.08,0.47,-0.14,9930,11719,,,,4,,,
1.1,0.49,-0.29,10051,11556,,,,4,,,
1.01,0.41,-0.34,9976,11544,,,,4,,,
0.88,0.35,-0.34,9863,11468,,,,4,,,
0.79,0.31,-0.34,9948,11573,,,,4,,,
0.86,0.35,-0.32,9983,11567,,,,4,,,
0.91,0.41,-0.36,10110,11690,,,,4,,,
0.94,0.47,-0.39,9958,11593,,,,4,,,
0.95,0.49,-0.36,10014,11426,,,,4,,,
0.93,0.45,-0.35,9932,11543,,,,4,,,
0.94,0.41,-0.31,10020,11552,,,,4,,,
0.96,0.36,-0.34,10022,11554,,,,4,,,
0.94,0.37,-0.36,10010,11391,,,,4,,,
0.93,0.34,-0.39,9892,11453,,,,4,,,
0.89,0.31,-0.35,9971,11518,,,,4,,,
0.86,0.31,-0.31,9977,11636,,,,4,,,
0.84,0.34,-0.31,10061,11520,,,,4,,,
0.84,0.36,-0.32,9945,11473,,,,4,,,
0.9,0.35,-0.37,10034,11560,,,,4,,,
0.98,0.32,-0.4,9956,11469,,,,4,,,
0.94,0.32,-0.35,9855,11321,,,,4,,,
0.96,0.32,-0.34,9907,11458,,,,4,,,
0.99,0.32,-0.32,9909,11417,,,,4,,,
0.95,0.32,-0.34,9966,11522,,,,4,,,
0.96,0.3,-0.36,9972,11389,,,,4,,,
0.95,0.31,-0.37,9910,11419,,,,4,,,
0.98,0.34,-0.39,9850,11349,,,,4,,,
0.95,0.34,-0.36,9874,11411,,,,4,,,
0.98,0.34,-0.34,9909,11503,,,,4,,,
0.98,0.32,-0.31,9899,11348,,,,4,,,
0.99,0.32,-0.25,9814,11200,,,,4,,,
1.02,0.3,-0.35,9870,11354,,,,4,,,
1.01,0.35,-0.37,9866,11393,,,,4,,,
1,0.34,-0.37,9997,11418,,,,4,,,
1,0.34,-0.31,9916,11348,,,,4,,,
0.98,0.35,-0.28,9731,11287,,,,4,,,
0.95,0.32,-0.3,9848,11348,,,,4,,,
0.89,0.34,-0.32,9872,11364,,,,4,,,
0.91,0.36,-0.34,10037,11456,,,,4,,,
0.98,0.4,-0.37,9929,11374,,,,4,,,
1.02,0.43,-0.4,9912,11247,,,,4,,,
1.05,0.44,-0.32,9852,11363,,,,4,,,
1.01,0.43,-0.31,9901,11378,,,,4,,,
0.9,0.35,-0.26,9796,11344,,,,4,,,
0.82,0.36,-0.32,9896,11350,,,,4,,,
0.89,0.4,-0.4,9846,11349,,,,4,,,
0.95,0.46,-0.4,10022,11442,,,,4,,,
0.99,0.44,-0.4,9892,11287,,,,4,,,
0.99,0.39,-0.43,9787,11148,,,,4,,,
0.95,0.39,-0.36,9851,11318,,,,4,,,
0.9,0.32,-0.32,9955,11415,,,,4,,,
0.96,0.34,-0.31,9915,11334,,,,4,,,
0.93,0.35,-0.36,9840,11344,,,,4,,,
0.93,0.37,-0.36,9908,11331,,,,4,,,
0.95,0.39,-0.36,9962,11472,,,,4,,,
0.95,0.39,-0.36,9961,11333,,,,4,,,
0.95,0.41,-0.35,9889,11363,,,,4,,,
0.98,0.41,-0.31,9919,11456,,,,4,,,
0.98,0.37,-0.32,9951,11601,,,,4,,,
0.95,0.32,-0.29,10042,11530,,,,4,,,
0.9,0.31,-0.29,9985,11540,,,,4,,,
0.94,0.32,-0.29,9869,11484,,,,4,,,
0.98,0.34,-0.31,9953,11507,,,,4,,,
0.96,0.34,-0.3,10004,11531,,,,4,,,
0.98,0.34,-0.24,10107,11598,,,,4,,,
0.95,0.35,-0.29,9984,11534,,,,4,,,
0.98,0.34,-0.29,9934,11388,,,,4,,,
0.99,0.31,-0.32,9932,11488,,,,4,,,
1,0.31,-0.36,9967,11512,,,,4,,,
1,0.3,-0.34,9843,11414,,,,4,,,
0.98,0.35,-0.3,9964,11524,,,,4,,,
0.99,0.34,-0.32,9973,11513,,,,4,,,
1.01,0.35,-0.31,10075,11633,,,,4,,,
1.01,0.34,-0.35,10012,11522,,,,4,,,
1.01,0.32,-0.36,9899,11420,,,,4,,,
1.02,0.32,-0.28,9943,11527,,,,4,,,
1.01,0.35,-0.31,9985,11658,,,,4,,,
1.01,0.36,-0.32,10012,11563,,,,4,,,
0.98,0.35,-0.32,9935,11723,,,,4,,,
1.08,0.4,-0.36,10071,11497,,,,4,,,
1.09,0.43,-0.34,10011,11574,,,,4,,,
1.04,0.35,-0.36,9853,11464,,,,4,,,
0.96,0.31,-0.34,9968,11535,,,,4,,,
0.89,0.29,-0.35,9965,11523,,,,4,,,
0.95,0.31,-0.4,10075,11589,,,,4,,,
0.96,0.4,-0.4,9966,11488,,,,4,,,
0.96,0.4,-0.36,9933,11361,,,,4,,,
0.94,0.43,-0.34,9963,11485,,,,4,,,
0.91,0.4,-0.3,10098,11589,,,,4,,,
0.86,0.37,-0.3,9989,11519,,,,4,,,
0.9,0.34,-0.26,9839,11441,,,,4,,,
0.9,0.32,-0.25,9838,11498,,,,4,,,
1,0.3,-0.13,9871,11373,,,,4,,,
1,0.31,-0.15,9951,11491,,,,4,,,
0.98,0.31,-0.3,9958,11475,,,,4,,,
0.99,0.31,-0.25,10044,11592,,,,4,,,
1,0.29,-0.37,9991,11492,,,,4,,,
0.98,0.34,-0.29,9960,11329,,,,4,,,
0.98,0.32,-0.28,9889,11453,,,,4,,,
0.99,0.32,-0.24,9961,11459,,,,4,,,
0.98,0.28,-0.25,9953,11652,,,,4,,,
0.99,0.29,-0.31,10057,11467,,,,4,,,
0.99,0.3,-0.2,9877,11420,,,,4,,,
0.99,0.31,-0.31,9944,11467,,,,4,,,
1.04,0.34,-0.24,9957,11539,,,,4,,,
0.99,0.32,-0.24,10075,11551,,,,4,,,
1.02,0.32,-0.29,9976,11466,,,,4,,,
1.02,0.32,-0.24,9865,11410,,,,4,,,
0.99,0.32,-0.1,9959,11500,,,,4,,,
0.9,0.39,-0.21,9942,11589,,,,4,,,
1.01,0.45,-0.29,10033,11566,,,,4,,,
1.02,0.46,-0.3,9989,11553,,,,4,,,
1.06,0.47,-0.29,10008,11522,,,,4,,,
1.04,0.4,-0.17,9908,11398,,,,4,,,
0.95,0.35,-0.24,9896,11516,,,,4,,,
0.93,0.34,-0.19,10089,11592,,,,4,,,
0.88,0.37,-0.26,10014,11378,,,,4,,,
0.94,0.41,-0.35,9902,11474,,,,4,,,
0.91,0.37,-0.4,9963,11511,,,,4,,,
0.93,0.39,-0.4,10062,11601,,,,4,,,
0.96,0.37,-0.34,9997,11486,,,,4,,,
0.94,0.35,-0.3,9860,11435,,,,4,,,
0.94,0.32,-0.24,9937,11508,,,,4,,,
0.98,0.35,-0.3,9979,11500,,,,4,,,
1,0.39,-0.31,10066,11615,,,,4,,,
0.99,0.39,-0.32,10018,11444,,,,4,,,
0.94,0.43,-0.25,9983,11532,,,,4,,,
0.98,0.41,-0.34,10002,11525,,,,4,,,
0.98,0.43,-0.31,9845,11413,,,,4,,,
0.95,0.35,-0.32,9939,11503,,,,4,,,
0.91,0.32,-0.31,9976,11539,,,,4,,,
0.86,0.35,-0.32,10011,11633,,,,4,,,
0.91,0.34,-0.32,10019,11522,,,,4,,,
0.89,0.34,-0.3,9810,11372,,,,4,,,
0.94,0.36,-0.32,9935,11499,,,,4,,,
0.95,0.39,-0.35,9979,11494,,,,4,,,
0.96,0.39,-0.34,9993,11646,,,,4,,,
0.94,0.35,-0.34,9908,11517,,,,4,,,
0.98,0.35,-0.29,10076,11584,,,,4,,,
0.98,0.36,-0.31,9992,11514,,,,4,,,
0.98,0.34,-0.3,9937,11497,,,,4,,,
0.93,0.34,-0.31,9973,11519,,,,4,,,
0.98,0.36,-0.29,10088,11531,,,,4,,,
0.98,0.35,-0.29,9927,11382,,,,4,,,
1,0.36,-0.32,9909,11498,,,,4,,,
0.96,0.37,-0.34,9968,11486,,,,4,,,
0.98,0.34,-0.3,9969,11636,,,,4,,,
0.96,0.36,-0.29,10062,11414,,,,4,,,
0.99,0.35,-0.3,9951,11514,,,,4,,,
1,0.34,-0.28,9953,11559,,,,4,,,
0.99,0.35,-0.31,10080,11558,,,,4,,,
0.96,0.36,-0.32,9978,11521,,,,4,,,
0.99,0.39,-0.3,9846,11474,,,,4,,,
1.02,0.36,-0.32,10078,11561,,,,4,,,
1,0.34,-0.34,9983,11453,,,,4,,,
1,0.34,-0.29,9895,11396,,,,4,,,
0.98,0.32,-0.24,9800,11322,,,,4,,,
1.05,0.39,-0.3,9923,11282,,,,4,,,
1.06,0.41,-0.32,9892,11396,,,,4,,,
1.04,0.41,-0.36,9910,11417,,,,4,,,
1,0.36,-0.37,9931,11410,,,,4,,,
1,0.36,-0.36,9880,11399,,,,4,,,
0.95,0.34,-0.39,9905,11391,,,,4,,,
0.93,0.34,-0.3,9939,11437,,,,4,,,
0.94,0.36,-0.25,9812,11287,,,,4,,,
0.95,0.41,-0.32,9860,11381,,,,4,,,
0.98,0.43,-0.36,9904,11392,,,,4,,,
1,0.45,-0.35,9943,11550,,,,4,,,
0.95,0.37,-0.3,10007,11378,,,,4,,,
0.94,0.32,-0.36,9889,11405,,,,4,,,
0.88,0.31,-0.36,9763,11268,,,,4,,,
0.85,0.32,-0.35,9864,11370,,,,4,,,
0.89,0.32,-0.36,9891,11404,,,,4,,,
0.94,0.32,-0.36,10041,11380,,,,4,,,
0.98,0.32,-0.39,9909,11393,,,,4,,,
0.98,0.32,-0.35,9779,11281,,,,4,,,
0.99,0.31,-0.35,9874,11360,,,,4,,,
0.99,0.31,-0.25,9898,11378,,,,4,,,
1.01,0.31,-0.25,9779,11307,,,,4,,,
0.99,0.34,-0.2,9880,11388,,,,4,,,
0.98,0.34,-0.28,9895,11484,,,,4,,,
0.99,0.31,-0.22,10002,11455,,,,4,,,
0.94,0.31,-0.29,9917,11406,,,,4,,,
0.9,0.32,-0.24,9741,11370,,,,4,,,
0.93,0.31,-0.28,10043,11514,,,,4,,,
0.94,0.32,-0.29,9907,11411,,,,4,,,
0.9,0.32,-0.31,9874,11339,,,,4,,,
0.95,0.32,-0.31,9792,11329,,,,4,,,
0.99,0.34,-0.29,9903,11355,,,,4,,,
0.96,0.35,-0.29,9782,11371,,,,4,,,
0.99,0.39,-0.3,9892,11515,,,,4,,,
1.1,0.49,-0.32,9925,11255,,,,4,,,
1.04,0.37,-0.22,9821,11389,,,,4,,,
0.96,0.32,-0.19,9923,11450,,,,4,,,
0.93,0.31,-0.28,9963,11568,,,,4,,,
0.91,0.34,-0.36,9980,11425,,,,4,,,
0.91,0.35,-0.35,9909,11479,,,,4,,,
0.91,0.36,-0.36,9833,11368,,,,4,,,
0.94,0.39,-0.31,9930,11472,,,,4,,,
0.96,0.36,-0.31,9941,11469,,,,4,,,
0.96,0.35,-0.32,10056,11552,,,,4,,,
0.95,0.34,-0.35,9927,11438,,,,4,,,
0.88,0.32,-0.35,9904,11368,,,,4,,,
0.93,0.32,-0.36,9875,11412,,,,4,,,
0.95,0.32,-0.39,9954,11452,,,,4,,,
0.98,0.36,-0.36,9928,11571,,,,4,,,
0.93,0.36,-0.31,9920,11312,,,,4,,,
0.94,0.32,-0.29,9876,11468,,,,4,,,
0.98,0.35,-0.32,9953,11495,,,,4,,,
0.99,0.32,-0.34,9979,11616,,,,4,,,
0.99,0.31,-0.32,9919,11462,,,,4,,,
0.98,0.32,-0.31,9862,11426,,,,4,,,
1,0.31,-0.35,9949,11577,,,,4,,,
0.99,0.34,-0.31,9960,11496,,,,4,,,
0.99,0.34,-0.31,9863,11378,,,,4,,,
0.98,0.35,-0.34,9892,11616,,,,4,,,
0.99,0.36,-0.34,10030,11501,,,,4,,,
0.99,0.35,-0.36,9974,11441,,,,4,,,
0.96,0.35,-0.3,9845,11407,,,,4,,,
0.95,0.36,-0.32,9920,11465,,,,4,,,
0.93,0.39,-0.25,9960,11461,,,,4,,,
0.95,0.37,-0.24,9956,11460,,,,4,,,
0.96,0.39,-0.3,9948,11469,,,,4,,,
0.94,0.37,-0.32,10065,11584,,,,4,,,
0.96,0.37,-0.36,9938,11413,,,,4,,,
0.9,0.37,-0.34,9925,11400,,,,4,,,
0.89,0.34,-0.36,9908,11459,,,,4,,,
0.93,0.39,-0.31,10002,11476,,,,4,,,
0.93,0.44,-0.32,9910,11288,,,,4,,,
0.93,0.46,-0.31,9859,11431,,,,4,,,
0.91,0.45,-0.35,9926,11444,,,,4,,,
0.95,0.44,-0.36,9933,11451,,,,4,,,
0.98,0.37,-0.34,10005,11482,,,,4,,,
0.98,0.36,-0.36,9934,11327,,,,4,,,
0.9,0.37,-0.34,9850,11428,,,,4,,,
0.91,0.35,-0.36,9933,11466,,,,4,,,
0.91,0.34,-0.34,10101,11579,,,,4,,,
0.91,0.37,-0.29,9959,11477,,,,4,,,
0.94,0.41,-0.31,9933,11447,,,,4,,,
0.93,0.43,-0.34,9821,11381,,,,4,,,
0.93,0.41,-0.36,9937,11588,,,,4,,,
0.95,0.4,-0.32,9808,11398,,,,4,,,
0.96,0.34,-0.34,9909,11467,,,,4,,,
0.94,0.34,-0.31,9941,11494,,,,4,,,
0.93,0.34,-0.31,10053,11517,,,,4,,,
0.9,0.35,-0.32,9965,11474,,,,4,,,
0.93,0.36,-0.35,9904,11468,,,,4,,,
0.94,0.4,-0.34,9941,11466,,,,4,,,
0.96,0.39,-0.22,10056,11578,,,,4,,,
0.98,0.4,-0.19,9920,11492,,,,4,,,
1.01,0.37,-0.25,9925,11383,,,,4,,,
0.96,0.35,-0.2,9873,11431,,,,4,,,
0.99,0.31,-0.24,9932,11469,,,,4,,,
0.98,0.35,-0.3,9964,11622,,,,4,,,
0.96,0.31,-0.28,10055,11493,,,,4,,,
0.99,0.36,-0.17,9924,11489,,,,4,,,
1.01,0.35,-0.24,9799,11478,,,,4,,,
1,0.34,-0.28,9940,11477,,,,4,,,
1.01,0.34,-0.29,9952,11591,,,,4,,,
1,0.31,-0.26,10003,11460,,,,4,,,
0.99,0.35,-0.3,9960,11481,,,,4,,,
0.99,0.31,-0.25,9855,11576,,,,4,,,
1,0.32,-0.28,9967,11440,,,,4,,,
1.01,0.31,-0.28,9898,11476,,,,4,,,
1,0.3,-0.24,9972,11472,,,,4,,,
1.01,0.31,-0.29,10078,11563,,,,4,,,
1,0.31,-0.26,9939,11370,,,,4,,,
1,0.31,-0.21,9872,11450,,,,4,,,
1,0.32,-0.21,9936,11455,,,,4,,,
1,0.3,-0.24,10046,11560,,,,4,,,
0.96,0.3,-0.22,9943,11467,,,,4,,,
0.96,0.31,-0.19,9919,11509,,,,4,,,
0.98,0.34,-0.16,9797,11387,,,,4,,,
1.01,0.37,-0.19,9919,11474,,,,4,,,
0.99,0.34,-0.25,9929,11487,,,,4,,,
0.94,0.32,-0.22,10018,11577,,,,4,,,
1,0.35,-0.15,9926,11475,,,,4,,,
1.01,0.34,-0.21,9942,11623,,,,4,,,
0.98,0.36,-0.24,9882,11513,,,,4,,,
0.94,0.39,-0.26,9922,11328,,,,4,,,
0.91,0.37,-0.26,9840,11470,,,,4,,,
0.93,0.41,-0.31,9938,11593,,,,4,,,
0.98,0.4,-0.34,9920,11463,,,,4,,,
0.96,0.43,-0.22,9924,11475,,,,4,,,
0.98,0.41,-0.26,10097,11594,,,,4,,,
0.96,0.36,-0.3,9932,11481,,,,4,,,
0.99,0.39,-0.3,9939,11385,,,,4,,,
1.01,0.39,-0.32,9937,11475,,,,4,,,
1.01,0.39,-0.37,10029,11620,,,,4,,,
1,0.36,-0.35,10013,11451,,,,4,,,
0.96,0.37,-0.34,9958,11527,,,,4,,,
